ply
format ascii 1.0
element vertex 1596
property float x
property float y
property float z
end_header
-0.826255 -0.324787 -0.559921
-0.826009 -0.324537 -0.559916
-0.825466 -0.324685 -0.559931
-0.824701 -0.324573 -0.559968
-0.824429 -0.324666 -0.559960
-0.823959 -0.324640 -0.559960
-0.823592 -0.324678 -0.559965
-0.821800 -0.324762 -0.559962
-0.821591 -0.324548 -0.559967
-0.853869 -0.324240 -0.559677
-0.853572 -0.324039 -0.559667
-0.853072 -0.324036 -0.559697
-0.852383 -0.324193 -0.559626
-0.852138 -0.323944 -0.559649
-0.851336 -0.324279 -0.559734
-0.850961 -0.324141 -0.559747
-0.850457 -0.324114 -0.559734
-0.849277 -0.324359 -0.559856
-0.849032 -0.324110 -0.559830
-0.848292 -0.324263 -0.559762
-0.847971 -0.324112 -0.559741
-0.847499 -0.324158 -0.559691
-0.846316 -0.324286 -0.559727
-0.846071 -0.324036 -0.559725
-0.844926 -0.324154 -0.559744
-0.844221 -0.324388 -0.559801
-0.843976 -0.324138 -0.559796
-0.843237 -0.324377 -0.559803
-0.842992 -0.324127 -0.559789
-0.842274 -0.324375 -0.559846
-0.842028 -0.324126 -0.559853
-0.840961 -0.324154 -0.559775
-0.839867 -0.324209 -0.559809
-0.839381 -0.324220 -0.559771
-0.839087 -0.324022 -0.559734
-0.838284 -0.324321 -0.559764
-0.837939 -0.324161 -0.559747
-0.837493 -0.324091 -0.559712
-0.836464 -0.324189 -0.559699
-0.835773 -0.324284 -0.559678
-0.835528 -0.324034 -0.559691
-0.834780 -0.324345 -0.559823
-0.834535 -0.324096 -0.559816
-0.833750 -0.324321 -0.559866
-0.833505 -0.324071 -0.559869
-0.832889 -0.324179 -0.559837
-0.832644 -0.323929 -0.559843
-0.831826 -0.324265 -0.559928
-0.831580 -0.324015 -0.559908
-0.830893 -0.324143 -0.559877
-0.830407 -0.324169 -0.559813
-0.829722 -0.324410 -0.559883
-0.829477 -0.324160 -0.559879
-0.828897 -0.324147 -0.559829
-0.828242 -0.324335 -0.559902
-0.827996 -0.324086 -0.559882
-0.827280 -0.324334 -0.559956
-0.826974 -0.324141 -0.559947
-0.826486 -0.324121 -0.559898
-0.825764 -0.324287 -0.559913
-0.825452 -0.324110 -0.559914
-0.824941 -0.324150 -0.559927
-0.824490 -0.324358 -0.559966
-0.853371 -0.323737 -0.559637
-0.853074 -0.323531 -0.559651
-0.852581 -0.323537 -0.559705
-0.851893 -0.323694 -0.559699
-0.851648 -0.323444 -0.559728
-0.850845 -0.323780 -0.559759
-0.850470 -0.323642 -0.559732
-0.849966 -0.323615 -0.559712
-0.848751 -0.323825 -0.559816
-0.848506 -0.323575 -0.559828
-0.847801 -0.323764 -0.559765
-0.847422 -0.323657 -0.559758
-0.846974 -0.323622 -0.559740
-0.845825 -0.323787 -0.559733
-0.845580 -0.323537 -0.559746
-0.844435 -0.323655 -0.559713
-0.843730 -0.323888 -0.559783
-0.843485 -0.323639 -0.559777
-0.842746 -0.323877 -0.559780
-0.842501 -0.323628 -0.559778
-0.841783 -0.323876 -0.559855
-0.841537 -0.323627 -0.559835
-0.840470 -0.323655 -0.559776
-0.839376 -0.323710 -0.559794
-0.838889 -0.323721 -0.559722
-0.838596 -0.323523 -0.559716
-0.837793 -0.323822 -0.559755
-0.837448 -0.323662 -0.559741
-0.837003 -0.323592 -0.559721
-0.836184 -0.323904 -0.559695
-0.835939 -0.323654 -0.559697
-0.835283 -0.323784 -0.559707
-0.835038 -0.323535 -0.559712
-0.834290 -0.323846 -0.559811
-0.834044 -0.323596 -0.559806
-0.833259 -0.323821 -0.559869
-0.833014 -0.323572 -0.559860
-0.832398 -0.323680 -0.559834
-0.832153 -0.323430 -0.559814
-0.831335 -0.323766 -0.559900
-0.831089 -0.323516 -0.559893
-0.830402 -0.323644 -0.559863
-0.829916 -0.323670 -0.559813
-0.829232 -0.323910 -0.559886
-0.828987 -0.323661 -0.559886
-0.828406 -0.323648 -0.559833
-0.827751 -0.323836 -0.559869
-0.827506 -0.323586 -0.559869
-0.826790 -0.323834 -0.559961
-0.826484 -0.323642 -0.559945
-0.825995 -0.323621 -0.559888
-0.825274 -0.323788 -0.559913
-0.824962 -0.323610 -0.559916
-0.824451 -0.323650 -0.559923
-0.823358 -0.323698 -0.559965
-0.823057 -0.323515 -0.559958
-0.820716 -0.323655 -0.559968
-0.820575 -0.323513 -0.559967
-0.852871 -0.323227 -0.559668
-0.852571 -0.323030 -0.559703
-0.852091 -0.323037 -0.559762
-0.851403 -0.323195 -0.559709
-0.851157 -0.322945 -0.559688
-0.850353 -0.323281 -0.559700
-0.849979 -0.323143 -0.559686
-0.849475 -0.323116 -0.559702
-0.848261 -0.323325 -0.559835
-0.848015 -0.323076 -0.559832
-0.847311 -0.323264 -0.559803
-0.846931 -0.323158 -0.559780
-0.846483 -0.323123 -0.559723
-0.845335 -0.323287 -0.559752
-0.845089 -0.323038 -0.559744
-0.843944 -0.323155 -0.559718
-0.843239 -0.323389 -0.559775
-0.842959 -0.323104 -0.559770
-0.842255 -0.323378 -0.559772
-0.842010 -0.323129 -0.559763
-0.841257 -0.323341 -0.559813
-0.841011 -0.323092 -0.559802
-0.840189 -0.323370 -0.559762
-0.839944 -0.323120 -0.559754
-0.838885 -0.323211 -0.559753
-0.838399 -0.323221 -0.559744
-0.838106 -0.323024 -0.559756
-0.837303 -0.323322 -0.559753
-0.836957 -0.323163 -0.559728
-0.836512 -0.323093 -0.559719
-0.835694 -0.323404 -0.559700
-0.835448 -0.323155 -0.559702
-0.834793 -0.323285 -0.559704
-0.834547 -0.323035 -0.559693
-0.833799 -0.323347 -0.559800
-0.833554 -0.323097 -0.559801
-0.832768 -0.323322 -0.559845
-0.832523 -0.323073 -0.559834
-0.831907 -0.323181 -0.559795
-0.831662 -0.322931 -0.559785
-0.830844 -0.323266 -0.559896
-0.830599 -0.323016 -0.559910
-0.829912 -0.323144 -0.559899
-0.829427 -0.323170 -0.559861
-0.828741 -0.323411 -0.559875
-0.828496 -0.323161 -0.559862
-0.827916 -0.323148 -0.559831
-0.827261 -0.323336 -0.559873
-0.827016 -0.323087 -0.559875
-0.826299 -0.323334 -0.559954
-0.825993 -0.323142 -0.559937
-0.825505 -0.323122 -0.559881
-0.824784 -0.323288 -0.559909
-0.824472 -0.323111 -0.559911
-0.823960 -0.323150 -0.559919
-0.823370 -0.323216 -0.559957
-0.822917 -0.323166 -0.559957
-0.822568 -0.323015 -0.559965
-0.820330 -0.323263 -0.559963
-0.820085 -0.323013 -0.559957
-0.852379 -0.322726 -0.559687
-0.852077 -0.322532 -0.559683
-0.851600 -0.322538 -0.559719
-0.850911 -0.322696 -0.559665
-0.850666 -0.322446 -0.559642
-0.849862 -0.322782 -0.559675
-0.849488 -0.322644 -0.559690
-0.848984 -0.322617 -0.559698
-0.847770 -0.322826 -0.559830
-0.847524 -0.322577 -0.559829
-0.846821 -0.322765 -0.559805
-0.846440 -0.322659 -0.559765
-0.845992 -0.322624 -0.559695
-0.844844 -0.322788 -0.559723
-0.844598 -0.322539 -0.559695
-0.843454 -0.322656 -0.559720
-0.842713 -0.322854 -0.559768
-0.842468 -0.322605 -0.559774
-0.841764 -0.322879 -0.559761
-0.841519 -0.322629 -0.559761
-0.840765 -0.322842 -0.559788
-0.840520 -0.322593 -0.559781
-0.839698 -0.322870 -0.559752
-0.839453 -0.322621 -0.559752
-0.838394 -0.322712 -0.559753
-0.837908 -0.322722 -0.559741
-0.837615 -0.322525 -0.559716
-0.836811 -0.322823 -0.559706
-0.836466 -0.322663 -0.559705
-0.836021 -0.322594 -0.559689
-0.835203 -0.322905 -0.559698
-0.834958 -0.322655 -0.559694
-0.834302 -0.322786 -0.559691
-0.834057 -0.322536 -0.559694
-0.833308 -0.322847 -0.559805
-0.833063 -0.322598 -0.559804
-0.832277 -0.322823 -0.559826
-0.832032 -0.322573 -0.559813
-0.831416 -0.322681 -0.559788
-0.831171 -0.322432 -0.559794
-0.830354 -0.322766 -0.559918
-0.830109 -0.322517 -0.559911
-0.829422 -0.322645 -0.559883
-0.828936 -0.322671 -0.559829
-0.828250 -0.322912 -0.559851
-0.828005 -0.322662 -0.559852
-0.827425 -0.322649 -0.559828
-0.826770 -0.322837 -0.559874
-0.826525 -0.322587 -0.559869
-0.825809 -0.322835 -0.559948
-0.825450 -0.322669 -0.559923
-0.824980 -0.322586 -0.559889
-0.824293 -0.322788 -0.559907
-0.823982 -0.322611 -0.559910
-0.823470 -0.322651 -0.559916
-0.822880 -0.322717 -0.559961
-0.822496 -0.322530 -0.559967
-0.822077 -0.322515 -0.559967
-0.819840 -0.322763 -0.559957
-0.819595 -0.322513 -0.559961
-0.851883 -0.322223 -0.559637
-0.851579 -0.322032 -0.559634
-0.851108 -0.322039 -0.559673
-0.850420 -0.322196 -0.559636
-0.850175 -0.321947 -0.559640
-0.849372 -0.322282 -0.559690
-0.849003 -0.322090 -0.559684
-0.848493 -0.322118 -0.559676
-0.847279 -0.322327 -0.559830
-0.847034 -0.322077 -0.559829
-0.846330 -0.322266 -0.559795
-0.845949 -0.322160 -0.559738
-0.845501 -0.322125 -0.559656
-0.844352 -0.322289 -0.559662
-0.844106 -0.322040 -0.559642
-0.842963 -0.322157 -0.559751
-0.842223 -0.322355 -0.559780
-0.841977 -0.322106 -0.559766
-0.841273 -0.322380 -0.559750
-0.841028 -0.322130 -0.559737
-0.840275 -0.322343 -0.559770
-0.840029 -0.322094 -0.559743
-0.839208 -0.322371 -0.559752
-0.838962 -0.322121 -0.559750
-0.837903 -0.322212 -0.559750
-0.837417 -0.322223 -0.559702
-0.837123 -0.322026 -0.559657
-0.836285 -0.322288 -0.559707
-0.835934 -0.322161 -0.559685
-0.835530 -0.322094 -0.559678
-0.834712 -0.322406 -0.559691
-0.834467 -0.322156 -0.559688
-0.833811 -0.322286 -0.559682
-0.833566 -0.322037 -0.559678
-0.832818 -0.322348 -0.559801
-0.832572 -0.322098 -0.559796
-0.831752 -0.322288 -0.559805
-0.831506 -0.322038 -0.559811
-0.830891 -0.322146 -0.559801
-0.829828 -0.322231 -0.559901
-0.829583 -0.321982 -0.559899
-0.828930 -0.322146 -0.559833
-0.828445 -0.322171 -0.559826
-0.827725 -0.322376 -0.559864
-0.827480 -0.322126 -0.559871
-0.826935 -0.322149 -0.559816
-0.826280 -0.322337 -0.559859
-0.826034 -0.322088 -0.559844
-0.825318 -0.322335 -0.559939
-0.824960 -0.322169 -0.559927
-0.824489 -0.322087 -0.559886
-0.823803 -0.322289 -0.559914
-0.823491 -0.322111 -0.559916
-0.822980 -0.322151 -0.559932
-0.822425 -0.322252 -0.559968
-0.821937 -0.322372 -0.559968
-0.821587 -0.322016 -0.559967
-0.821036 -0.322072 -0.559950
-0.819350 -0.322263 -0.559961
-0.819105 -0.322013 -0.559960
-0.851388 -0.321721 -0.559613
-0.851066 -0.321531 -0.559627
-0.850582 -0.321505 -0.559667
-0.849895 -0.321662 -0.559648
-0.848846 -0.321748 -0.559673
-0.848512 -0.321591 -0.559677
-0.848003 -0.321619 -0.559678
-0.846788 -0.321828 -0.559822
-0.846543 -0.321578 -0.559810
-0.845838 -0.321767 -0.559752
-0.845458 -0.321661 -0.559693
-0.845010 -0.321626 -0.559626
-0.843826 -0.321755 -0.559644
-0.843581 -0.321505 -0.559659
-0.842683 -0.321871 -0.559755
-0.842438 -0.321622 -0.559740
-0.841731 -0.321856 -0.559738
-0.841486 -0.321607 -0.559709
-0.840782 -0.321881 -0.559726
-0.840537 -0.321631 -0.559711
-0.839783 -0.321844 -0.559729
-0.839538 -0.321594 -0.559746
-0.838717 -0.321872 -0.559745
-0.838471 -0.321622 -0.559735
-0.837413 -0.321713 -0.559741
-0.836925 -0.321724 -0.559642
-0.836632 -0.321527 -0.559627
-0.835794 -0.321789 -0.559648
-0.835399 -0.321674 -0.559658
-0.835005 -0.321559 -0.559675
-0.834222 -0.321906 -0.559688
-0.833976 -0.321657 -0.559693
-0.833286 -0.321751 -0.559691
-0.833041 -0.321502 -0.559694
-0.832292 -0.321813 -0.559789
-0.832047 -0.321563 -0.559787
-0.831261 -0.321788 -0.559818
-0.831016 -0.321539 -0.559821
-0.830400 -0.321647 -0.559792
-0.829338 -0.321732 -0.559893
-0.829092 -0.321482 -0.559884
-0.828440 -0.321646 -0.559834
-0.827955 -0.321672 -0.559843
-0.827235 -0.321877 -0.559870
-0.826989 -0.321627 -0.559860
-0.826444 -0.321650 -0.559799
-0.825754 -0.321802 -0.559839
-0.825509 -0.321553 -0.559846
-0.824793 -0.321800 -0.559942
-0.824426 -0.321665 -0.559904
-0.823999 -0.321587 -0.559885
-0.823313 -0.321789 -0.559911
-0.823001 -0.321612 -0.559920
-0.822490 -0.321651 -0.559928
-0.821794 -0.321610 -0.559963
-0.821397 -0.321699 -0.559958
-0.820926 -0.321651 -0.559945
-0.820511 -0.321536 -0.559946
-0.818825 -0.321727 -0.559957
-0.818580 -0.321478 -0.559958
-0.850893 -0.321218 -0.559608
-0.850571 -0.321033 -0.559627
-0.850092 -0.321005 -0.559677
-0.849404 -0.321162 -0.559645
-0.848355 -0.321248 -0.559694
-0.847955 -0.321133 -0.559690
-0.847477 -0.321084 -0.559690
-0.846297 -0.321329 -0.559799
-0.846052 -0.321079 -0.559791
-0.845347 -0.321268 -0.559712
-0.844966 -0.321162 -0.559666
-0.844518 -0.321127 -0.559607
-0.843336 -0.321255 -0.559693
-0.843091 -0.321005 -0.559718
-0.842192 -0.321372 -0.559718
-0.841946 -0.321123 -0.559699
-0.841240 -0.321357 -0.559681
-0.840994 -0.321108 -0.559656
-0.840256 -0.321346 -0.559694
-0.840011 -0.321096 -0.559692
-0.839293 -0.321345 -0.559755
-0.839047 -0.321095 -0.559731
-0.838226 -0.321373 -0.559727
-0.837981 -0.321123 -0.559722
-0.836922 -0.321214 -0.559728
-0.836435 -0.321225 -0.559668
-0.836142 -0.321027 -0.559675
-0.835303 -0.321290 -0.559645
-0.834908 -0.321175 -0.559653
-0.834514 -0.321060 -0.559653
-0.833731 -0.321407 -0.559700
-0.833486 -0.321157 -0.559704
-0.832795 -0.321252 -0.559680
-0.832549 -0.321003 -0.559661
-0.831801 -0.321314 -0.559784
-0.831556 -0.321064 -0.559776
-0.830771 -0.321289 -0.559823
-0.830526 -0.321039 -0.559824
-0.829910 -0.321147 -0.559781
-0.828847 -0.321233 -0.559874
-0.828602 -0.320983 -0.559872
-0.827949 -0.321147 -0.559847
-0.827465 -0.321172 -0.559840
-0.826744 -0.321377 -0.559846
-0.826498 -0.321128 -0.559837
-0.825954 -0.321150 -0.559800
-0.825264 -0.321303 -0.559849
-0.825018 -0.321053 -0.559847
-0.824302 -0.321301 -0.559910
-0.823936 -0.321165 -0.559915
-0.823509 -0.321087 -0.559900
-0.822788 -0.321254 -0.559926
-0.822468 -0.321103 -0.559920
-0.821999 -0.321152 -0.559922
-0.821374 -0.321182 -0.559947
-0.820907 -0.321199 -0.559951
-0.820436 -0.321151 -0.559952
-0.820021 -0.321037 -0.559930
-0.818370 -0.321263 -0.559962
-0.850687 -0.320917 -0.559588
-0.850394 -0.320710 -0.559597
-0.850067 -0.320540 -0.559605
-0.849600 -0.320506 -0.559645
-0.848913 -0.320663 -0.559626
-0.847829 -0.320714 -0.559671
-0.847407 -0.320649 -0.559670
-0.846986 -0.320585 -0.559674
-0.845806 -0.320830 -0.559776
-0.845560 -0.320580 -0.559755
-0.844821 -0.320733 -0.559695
-0.844424 -0.320681 -0.559651
-0.844028 -0.320628 -0.559621
-0.842846 -0.320756 -0.559705
-0.842600 -0.320506 -0.559676
-0.841700 -0.320873 -0.559680
-0.841455 -0.320624 -0.559663
-0.840748 -0.320858 -0.559646
-0.840503 -0.320608 -0.559654
-0.839765 -0.320847 -0.559697
-0.839520 -0.320597 -0.559701
-0.838801 -0.320846 -0.559711
-0.838556 -0.320596 -0.559712
-0.837735 -0.320873 -0.559713
-0.837490 -0.320624 -0.559709
-0.836396 -0.320679 -0.559716
-0.835862 -0.320742 -0.559682
-0.835616 -0.320492 -0.559680
-0.834813 -0.320791 -0.559649
-0.834418 -0.320676 -0.559663
-0.834023 -0.320561 -0.559657
-0.833241 -0.320908 -0.559699
-0.832995 -0.320658 -0.559684
-0.832304 -0.320753 -0.559658
-0.832059 -0.320503 -0.559670
-0.831310 -0.320814 -0.559768
-0.831065 -0.320565 -0.559763
-0.830280 -0.320790 -0.559823
-0.830035 -0.320540 -0.559821
-0.829419 -0.320648 -0.559759
-0.828356 -0.320733 -0.559873
-0.828111 -0.320484 -0.559867
-0.827424 -0.320677 -0.559826
-0.826939 -0.320637 -0.559818
-0.826253 -0.320878 -0.559839
-0.826008 -0.320628 -0.559842
-0.825463 -0.320651 -0.559799
-0.824773 -0.320803 -0.559854
-0.824528 -0.320553 -0.559862
-0.823883 -0.320872 -0.559957
-0.823264 -0.320837 -0.559900
-0.823019 -0.320588 -0.559891
-0.822297 -0.320754 -0.559894
-0.821919 -0.320649 -0.559894
-0.821474 -0.320616 -0.559914
-0.820883 -0.320682 -0.559944
-0.820379 -0.320681 -0.559958
-0.819898 -0.320664 -0.559933
-0.819530 -0.320537 -0.559920
-0.850196 -0.320418 -0.559561
-0.849896 -0.320205 -0.559563
-0.849565 -0.320040 -0.559581
-0.849110 -0.320007 -0.559638
-0.848422 -0.320164 -0.559613
-0.847338 -0.320215 -0.559654
-0.846917 -0.320150 -0.559656
-0.846495 -0.320085 -0.559650
-0.845315 -0.320331 -0.559737
-0.845069 -0.320081 -0.559726
-0.844330 -0.320234 -0.559684
-0.843934 -0.320181 -0.559654
-0.843537 -0.320129 -0.559627
-0.842354 -0.320257 -0.559639
-0.842108 -0.320008 -0.559608
-0.841209 -0.320374 -0.559651
-0.840964 -0.320124 -0.559647
-0.840223 -0.320323 -0.559661
-0.839977 -0.320073 -0.559657
-0.839275 -0.320347 -0.559698
-0.839029 -0.320098 -0.559692
-0.838311 -0.320346 -0.559711
-0.838065 -0.320097 -0.559706
-0.837244 -0.320374 -0.559714
-0.836999 -0.320125 -0.559716
-0.835905 -0.320180 -0.559708
-0.835371 -0.320243 -0.559667
-0.835125 -0.319993 -0.559656
-0.834322 -0.320291 -0.559677
-0.833927 -0.320176 -0.559666
-0.833532 -0.320062 -0.559641
-0.832750 -0.320408 -0.559675
-0.832504 -0.320159 -0.559682
-0.831814 -0.320253 -0.559678
-0.831569 -0.320004 -0.559680
-0.830820 -0.320315 -0.559762
-0.830574 -0.320065 -0.559765
-0.829790 -0.320290 -0.559818
-0.829545 -0.320040 -0.559820
-0.828928 -0.320149 -0.559756
-0.827866 -0.320234 -0.559860
-0.827620 -0.319984 -0.559858
-0.826934 -0.320178 -0.559824
-0.826448 -0.320138 -0.559814
-0.825763 -0.320378 -0.559839
-0.825462 -0.320168 -0.559829
-0.824938 -0.320115 -0.559813
-0.824284 -0.320303 -0.559892
-0.824040 -0.320053 -0.559937
-0.822908 -0.320177 -0.559921
-0.822528 -0.320088 -0.559871
-0.821806 -0.320255 -0.559875
-0.821428 -0.320150 -0.559892
-0.820983 -0.320117 -0.559908
-0.820393 -0.320183 -0.559945
-0.819888 -0.320181 -0.559943
-0.819407 -0.320165 -0.559928
-0.819040 -0.320037 -0.559927
-0.849705 -0.319919 -0.559536
-0.849401 -0.319703 -0.559556
-0.849068 -0.319539 -0.559582
-0.848619 -0.319508 -0.559620
-0.847931 -0.319665 -0.559576
-0.846847 -0.319715 -0.559634
-0.846425 -0.319651 -0.559627
-0.846004 -0.319586 -0.559639
-0.844789 -0.319796 -0.559729
-0.844543 -0.319546 -0.559735
-0.843839 -0.319735 -0.559666
-0.843391 -0.319700 -0.559624
-0.843011 -0.319594 -0.559584
-0.841862 -0.319758 -0.559589
-0.841617 -0.319508 -0.559579
-0.840718 -0.319875 -0.559643
-0.840473 -0.319625 -0.559638
-0.839732 -0.319824 -0.559652
-0.839487 -0.319574 -0.559645
-0.838784 -0.319848 -0.559687
-0.838538 -0.319599 -0.559680
-0.837820 -0.319847 -0.559703
-0.837574 -0.319598 -0.559697
-0.836719 -0.319839 -0.559707
-0.836473 -0.319590 -0.559692
-0.835414 -0.319681 -0.559703
-0.834880 -0.319744 -0.559643
-0.834634 -0.319494 -0.559628
-0.833832 -0.319792 -0.559689
-0.833437 -0.319677 -0.559662
-0.833041 -0.319562 -0.559629
-0.832224 -0.319873 -0.559691
-0.831979 -0.319624 -0.559687
-0.831323 -0.319754 -0.559678
-0.831078 -0.319504 -0.559674
-0.830329 -0.319816 -0.559768
-0.830084 -0.319566 -0.559771
-0.829299 -0.319791 -0.559821
-0.829054 -0.319541 -0.559817
-0.828438 -0.319649 -0.559753
-0.827375 -0.319734 -0.559856
-0.826982 -0.319611 -0.559842
-0.826408 -0.319652 -0.559825
-0.825958 -0.319639 -0.559809
-0.825272 -0.319879 -0.559839
-0.824972 -0.319668 -0.559845
-0.824448 -0.319616 -0.559825
-0.823794 -0.319803 -0.559929
-0.823548 -0.319554 -0.559876
-0.822832 -0.319802 -0.559950
-0.822465 -0.319666 -0.559923
-0.822038 -0.319589 -0.559879
-0.821316 -0.319755 -0.559889
-0.820938 -0.319650 -0.559904
-0.820493 -0.319617 -0.559907
-0.819903 -0.319683 -0.559931
-0.819397 -0.319682 -0.559922
-0.818917 -0.319665 -0.559930
-0.818551 -0.319537 -0.559951
-0.849214 -0.319420 -0.559535
-0.848904 -0.319198 -0.559549
-0.848566 -0.319042 -0.559571
-0.848128 -0.319009 -0.559614
-0.847440 -0.319166 -0.559556
-0.846356 -0.319216 -0.559603
-0.845934 -0.319152 -0.559609
-0.845513 -0.319087 -0.559609
-0.844298 -0.319296 -0.559727
-0.844052 -0.319047 -0.559714
-0.843348 -0.319236 -0.559621
-0.842900 -0.319201 -0.559578
-0.842520 -0.319095 -0.559551
-0.841371 -0.319259 -0.559568
-0.841125 -0.319009 -0.559554
-0.840228 -0.319376 -0.559631
-0.839982 -0.319126 -0.559622
-0.839241 -0.319325 -0.559637
-0.838996 -0.319075 -0.559629
-0.838293 -0.319349 -0.559670
-0.838047 -0.319100 -0.559661
-0.837294 -0.319312 -0.559686
-0.837048 -0.319063 -0.559679
-0.836227 -0.319340 -0.559675
-0.835982 -0.319091 -0.559657
-0.834924 -0.319181 -0.559695
-0.834388 -0.319244 -0.559615
-0.834143 -0.318995 -0.559608
-0.833341 -0.319293 -0.559683
-0.832946 -0.319178 -0.559654
-0.832551 -0.319063 -0.559644
-0.831733 -0.319374 -0.559683
-0.831488 -0.319124 -0.559678
-0.830832 -0.319255 -0.559661
-0.830587 -0.319005 -0.559642
-0.829839 -0.319316 -0.559780
-0.829594 -0.319066 -0.559785
-0.828809 -0.319291 -0.559811
-0.828563 -0.319042 -0.559813
-0.827947 -0.319150 -0.559760
-0.826884 -0.319235 -0.559840
-0.826492 -0.319111 -0.559835
-0.825918 -0.319153 -0.559823
-0.825468 -0.319139 -0.559829
-0.824782 -0.319379 -0.559853
-0.824481 -0.319169 -0.559846
-0.823957 -0.319116 -0.559813
-0.823302 -0.319304 -0.559861
-0.823057 -0.319054 -0.559875
-0.821758 -0.319303 -0.559881
-0.821512 -0.319053 -0.559878
-0.820826 -0.319255 -0.559900
-0.820448 -0.319150 -0.559895
-0.820002 -0.319118 -0.559882
-0.819412 -0.319183 -0.559920
-0.818907 -0.319182 -0.559938
-0.818428 -0.319165 -0.559961
-0.818131 -0.319108 -0.559965
-0.848703 -0.318923 -0.559520
-0.848405 -0.318690 -0.559541
-0.848069 -0.318549 -0.559566
-0.847637 -0.318510 -0.559604
-0.846948 -0.318667 -0.559531
-0.845865 -0.318717 -0.559588
-0.845443 -0.318653 -0.559596
-0.845022 -0.318588 -0.559612
-0.843807 -0.318797 -0.559695
-0.843561 -0.318548 -0.559675
-0.842856 -0.318737 -0.559592
-0.842409 -0.318702 -0.559560
-0.842028 -0.318596 -0.559536
-0.840880 -0.318760 -0.559541
-0.840635 -0.318510 -0.559542
-0.839737 -0.318876 -0.559615
-0.839491 -0.318627 -0.559606
-0.838750 -0.318826 -0.559624
-0.838505 -0.318576 -0.559620
-0.837802 -0.318850 -0.559653
-0.837556 -0.318600 -0.559647
-0.836803 -0.318813 -0.559680
-0.836558 -0.318563 -0.559683
-0.835736 -0.318841 -0.559637
-0.835490 -0.318592 -0.559626
-0.834433 -0.318682 -0.559681
-0.833898 -0.318745 -0.559616
-0.833653 -0.318495 -0.559623
-0.832850 -0.318793 -0.559670
-0.832455 -0.318678 -0.559655
-0.832060 -0.318564 -0.559629
-0.831243 -0.318875 -0.559662
-0.830997 -0.318625 -0.559655
-0.830341 -0.318756 -0.559641
-0.830096 -0.318506 -0.559658
-0.829348 -0.318817 -0.559781
-0.829103 -0.318567 -0.559777
-0.828318 -0.318792 -0.559819
-0.828073 -0.318542 -0.559823
-0.827457 -0.318650 -0.559750
-0.826359 -0.318700 -0.559860
-0.825911 -0.318657 -0.559845
-0.825428 -0.318653 -0.559829
-0.824977 -0.318639 -0.559837
-0.824257 -0.318844 -0.559846
-0.823952 -0.318649 -0.559834
-0.823467 -0.318617 -0.559814
-0.822812 -0.318805 -0.559879
-0.822567 -0.318555 -0.559869
-0.821851 -0.318802 -0.559958
-0.821436 -0.318678 -0.559909
-0.821021 -0.318554 -0.559846
-0.820336 -0.318756 -0.559892
-0.819957 -0.318651 -0.559889
-0.819513 -0.318618 -0.559905
-0.818958 -0.318719 -0.559953
-0.818121 -0.318482 -0.559964
-0.848232 -0.318422 -0.559519
-0.847910 -0.318187 -0.559530
-0.847544 -0.318050 -0.559545
-0.847111 -0.317975 -0.559578
-0.846458 -0.318167 -0.559528
-0.845374 -0.318218 -0.559577
-0.844952 -0.318154 -0.559587
-0.844531 -0.318089 -0.559590
-0.843315 -0.318298 -0.559664
-0.843070 -0.318049 -0.559658
-0.842365 -0.318238 -0.559572
-0.841918 -0.318203 -0.559539
-0.841538 -0.318097 -0.559520
-0.840390 -0.318260 -0.559559
-0.840144 -0.318011 -0.559573
-0.839246 -0.318377 -0.559597
-0.839000 -0.318128 -0.559597
-0.838259 -0.318326 -0.559618
-0.838014 -0.318077 -0.559612
-0.837311 -0.318351 -0.559642
-0.837066 -0.318101 -0.559634
-0.836312 -0.318314 -0.559675
-0.836067 -0.318064 -0.559663
-0.835245 -0.318342 -0.559630
-0.835000 -0.318092 -0.559644
-0.833942 -0.318183 -0.559675
-0.833407 -0.318246 -0.559617
-0.833162 -0.317996 -0.559622
-0.832325 -0.318258 -0.559674
-0.831921 -0.318192 -0.559633
-0.831569 -0.318065 -0.559580
-0.830752 -0.318375 -0.559661
-0.830507 -0.318126 -0.559665
-0.829852 -0.318256 -0.559677
-0.829606 -0.318006 -0.559685
-0.828823 -0.318282 -0.559776
-0.828577 -0.318032 -0.559773
-0.827793 -0.318257 -0.559817
-0.827547 -0.318007 -0.559804
-0.826966 -0.318151 -0.559749
-0.825869 -0.318200 -0.559877
-0.825420 -0.318157 -0.559865
-0.824937 -0.318153 -0.559849
-0.824486 -0.318140 -0.559819
-0.823766 -0.318345 -0.559838
-0.823461 -0.318149 -0.559834
-0.822977 -0.318117 -0.559826
-0.822286 -0.318270 -0.559860
-0.822041 -0.318020 -0.559858
-0.821325 -0.318267 -0.559929
-0.820897 -0.318190 -0.559862
-0.820531 -0.318055 -0.559837
-0.819846 -0.318256 -0.559905
-0.819468 -0.318150 -0.559933
-0.819164 -0.318260 -0.559964
-0.817876 -0.318232 -0.559962
-0.816976 -0.317930 -0.559966
-0.847741 -0.317923 -0.559495
-0.847413 -0.317680 -0.559502
-0.847027 -0.317568 -0.559533
-0.846620 -0.317476 -0.559572
-0.845967 -0.317668 -0.559505
-0.844883 -0.317719 -0.559561
-0.844461 -0.317654 -0.559564
-0.844040 -0.317590 -0.559562
-0.842825 -0.317799 -0.559651
-0.842579 -0.317550 -0.559647
-0.841874 -0.317738 -0.559554
-0.841427 -0.317704 -0.559531
-0.841047 -0.317598 -0.559511
-0.839864 -0.317726 -0.559565
-0.839618 -0.317476 -0.559552
-0.838720 -0.317842 -0.559604
-0.838475 -0.317593 -0.559603
-0.837768 -0.317827 -0.559607
-0.837523 -0.317578 -0.559606
-0.836820 -0.317852 -0.559625
-0.836575 -0.317602 -0.559622
-0.835821 -0.317815 -0.559656
-0.835576 -0.317565 -0.559649
-0.834755 -0.317843 -0.559651
-0.834509 -0.317593 -0.559650
-0.833452 -0.317683 -0.559702
-0.832917 -0.317746 -0.559657
-0.832672 -0.317497 -0.559678
-0.831834 -0.317759 -0.559665
-0.831388 -0.317689 -0.559599
-0.831043 -0.317529 -0.559592
-0.830261 -0.317876 -0.559671
-0.830016 -0.317626 -0.559686
-0.829326 -0.317721 -0.559685
-0.829081 -0.317471 -0.559684
-0.828332 -0.317783 -0.559764
-0.828051 -0.317497 -0.559757
-0.827302 -0.317757 -0.559804
-0.826964 -0.317597 -0.559802
-0.826441 -0.317616 -0.559764
-0.825378 -0.317701 -0.559859
-0.824929 -0.317658 -0.559836
-0.824446 -0.317654 -0.559824
-0.823996 -0.317640 -0.559824
-0.823276 -0.317845 -0.559835
-0.822971 -0.317650 -0.559832
-0.822486 -0.317617 -0.559818
-0.821796 -0.317770 -0.559856
-0.821551 -0.317520 -0.559856
-0.820835 -0.317768 -0.559923
-0.820408 -0.317690 -0.559893
-0.820041 -0.317554 -0.559877
-0.819321 -0.317720 -0.559935
-0.819077 -0.317470 -0.559948
-0.818533 -0.317618 -0.559962
-0.816914 -0.317662 -0.559963
-0.816555 -0.317502 -0.559958
-0.814905 -0.317728 -0.559965
-0.847250 -0.317424 -0.559478
-0.846921 -0.317181 -0.559508
-0.846536 -0.317069 -0.559545
-0.845907 -0.317180 -0.559530
-0.845440 -0.317134 -0.559473
-0.844357 -0.317184 -0.559526
-0.843847 -0.317212 -0.559526
-0.843513 -0.317055 -0.559505
-0.842334 -0.317300 -0.559638
-0.842088 -0.317050 -0.559629
-0.841384 -0.317239 -0.559560
-0.840936 -0.317205 -0.559533
-0.840556 -0.317098 -0.559505
-0.839373 -0.317226 -0.559551
-0.839128 -0.316977 -0.559559
-0.838229 -0.317343 -0.559586
-0.837983 -0.317094 -0.559564
-0.837278 -0.317328 -0.559604
-0.837032 -0.317078 -0.559594
-0.836294 -0.317317 -0.559629
-0.836049 -0.317067 -0.559635
-0.835330 -0.317316 -0.559642
-0.835085 -0.317066 -0.559645
-0.834264 -0.317343 -0.559658
-0.834019 -0.317094 -0.559671
-0.832961 -0.317184 -0.559710
-0.832392 -0.317211 -0.559675
-0.832111 -0.316926 -0.559664
-0.831343 -0.317260 -0.559647
-0.830899 -0.317190 -0.559644
-0.830554 -0.317030 -0.559663
-0.829771 -0.317376 -0.559699
-0.829526 -0.317127 -0.559696
-0.828835 -0.317221 -0.559676
-0.828590 -0.316972 -0.559666
-0.827806 -0.317248 -0.559759
-0.827561 -0.316998 -0.559765
-0.826812 -0.317258 -0.559815
-0.826473 -0.317098 -0.559782
-0.825950 -0.317116 -0.559743
-0.824887 -0.317202 -0.559830
-0.824439 -0.317158 -0.559833
-0.823922 -0.317175 -0.559831
-0.823471 -0.317105 -0.559828
-0.822785 -0.317346 -0.559833
-0.822480 -0.317150 -0.559827
-0.821996 -0.317118 -0.559805
-0.821306 -0.317271 -0.559863
-0.821061 -0.317021 -0.559871
-0.820345 -0.317268 -0.559946
-0.819918 -0.317190 -0.559906
-0.819551 -0.317055 -0.559869
-0.818832 -0.317220 -0.559953
-0.818437 -0.317169 -0.559955
-0.816860 -0.317197 -0.559962
-0.816371 -0.317191 -0.559957
-0.816065 -0.317002 -0.559958
-0.846710 -0.316890 -0.559490
-0.846423 -0.316676 -0.559513
-0.846036 -0.316579 -0.559539
-0.845638 -0.316478 -0.559543
-0.843865 -0.316685 -0.559487
-0.843267 -0.316806 -0.559480
-0.843127 -0.316663 -0.559470
-0.841843 -0.316801 -0.559627
-0.841597 -0.316551 -0.559627
-0.840858 -0.316704 -0.559563
-0.840386 -0.316750 -0.559514
-0.840065 -0.316599 -0.559498
-0.838882 -0.316727 -0.559558
-0.838637 -0.316478 -0.559550
-0.837738 -0.316844 -0.559545
-0.837492 -0.316595 -0.559532
-0.836752 -0.316793 -0.559587
-0.836506 -0.316543 -0.559591
-0.835804 -0.316817 -0.559639
-0.835559 -0.316568 -0.559637
-0.834840 -0.316816 -0.559655
-0.834595 -0.316567 -0.559663
-0.833774 -0.316844 -0.559682
-0.833529 -0.316594 -0.559692
-0.832681 -0.316899 -0.559705
-0.832435 -0.316649 -0.559702
-0.831866 -0.316676 -0.559654
-0.831620 -0.316427 -0.559655
-0.830853 -0.316760 -0.559703
-0.830409 -0.316690 -0.559677
-0.830063 -0.316531 -0.559636
-0.829281 -0.316877 -0.559685
-0.829035 -0.316628 -0.559674
-0.828345 -0.316722 -0.559664
-0.828099 -0.316472 -0.559667
-0.827316 -0.316748 -0.559765
-0.827070 -0.316499 -0.559751
-0.826320 -0.316759 -0.559762
-0.825982 -0.316599 -0.559744
-0.825459 -0.316617 -0.559725
-0.824397 -0.316702 -0.559841
-0.823948 -0.316659 -0.559829
-0.823431 -0.316676 -0.559814
-0.822980 -0.316606 -0.559810
-0.822295 -0.316846 -0.559823
-0.821938 -0.316675 -0.559809
-0.821470 -0.316583 -0.559805
-0.820816 -0.316771 -0.559877
-0.820571 -0.316521 -0.559877
-0.819854 -0.316768 -0.559938
-0.819427 -0.316691 -0.559887
-0.819061 -0.316555 -0.559871
-0.818341 -0.316721 -0.559938
-0.817896 -0.316688 -0.559953
-0.817518 -0.316583 -0.559951
-0.816927 -0.316649 -0.559952
-0.816370 -0.316697 -0.559965
-0.815881 -0.316691 -0.559961
-0.815575 -0.316502 -0.559959
-0.846211 -0.316399 -0.559500
-0.845950 -0.316199 -0.559503
-0.845495 -0.316120 -0.559507
-0.845146 -0.315979 -0.559496
-0.841352 -0.316302 -0.559625
-0.841107 -0.316052 -0.559625
-0.840367 -0.316205 -0.559550
-0.839895 -0.316251 -0.559510
-0.839574 -0.316100 -0.559496
-0.838391 -0.316228 -0.559537
-0.838146 -0.315978 -0.559521
-0.837247 -0.316345 -0.559533
-0.837002 -0.316095 -0.559541
-0.836261 -0.316294 -0.559595
-0.836016 -0.316044 -0.559592
-0.835313 -0.316318 -0.559634
-0.835033 -0.316033 -0.559647
-0.834350 -0.316317 -0.559685
-0.834105 -0.316067 -0.559716
-0.833284 -0.316344 -0.559695
-0.833038 -0.316095 -0.559680
-0.832190 -0.316399 -0.559704
-0.831945 -0.316150 -0.559711
-0.831375 -0.316177 -0.559672
-0.831130 -0.315927 -0.559683
-0.830363 -0.316261 -0.559721
-0.829918 -0.316191 -0.559659
-0.829572 -0.316031 -0.559633
-0.828755 -0.316342 -0.559668
-0.828509 -0.316093 -0.559666
-0.827854 -0.316223 -0.559667
-0.827609 -0.315973 -0.559661
-0.826825 -0.316249 -0.559738
-0.826579 -0.315999 -0.559729
-0.825829 -0.316260 -0.559743
-0.825491 -0.316099 -0.559742
-0.824969 -0.316118 -0.559727
-0.823906 -0.316203 -0.559834
-0.823367 -0.316205 -0.559814
-0.822905 -0.316160 -0.559803
-0.822489 -0.316107 -0.559800
-0.821804 -0.316347 -0.559804
-0.821448 -0.316176 -0.559812
-0.820980 -0.316083 -0.559807
-0.820325 -0.316271 -0.559874
-0.820080 -0.316021 -0.559877
-0.819364 -0.316269 -0.559933
-0.818937 -0.316191 -0.559926
-0.818607 -0.316090 -0.559951
-0.817851 -0.316221 -0.559933
-0.817405 -0.316188 -0.559929
-0.817026 -0.316084 -0.559913
-0.816437 -0.316149 -0.559962
-0.815880 -0.316197 -0.559953
-0.815391 -0.316191 -0.559960
-0.845696 -0.315922 -0.559482
-0.845556 -0.315835 -0.559478
-0.844971 -0.315801 -0.559483
-0.842743 -0.315544 -0.559480
-0.842374 -0.315715 -0.559488
-0.842041 -0.315558 -0.559526
-0.840826 -0.315767 -0.559639
-0.840581 -0.315517 -0.559645
-0.839877 -0.315706 -0.559550
-0.839361 -0.315743 -0.559502
-0.839048 -0.315565 -0.559482
-0.837900 -0.315729 -0.559510
-0.837655 -0.315479 -0.559497
-0.836756 -0.315846 -0.559546
-0.836511 -0.315596 -0.559552
-0.835770 -0.315795 -0.559590
-0.835525 -0.315545 -0.559594
-0.834788 -0.315783 -0.559677
-0.834543 -0.315533 -0.559700
-0.833825 -0.315782 -0.559728
-0.833579 -0.315532 -0.559717
-0.832757 -0.315810 -0.559659
-0.832512 -0.315560 -0.559648
-0.831700 -0.315900 -0.559713
-0.831454 -0.315650 -0.559714
-0.830885 -0.315678 -0.559670
-0.830639 -0.315428 -0.559653
-0.829872 -0.315762 -0.559682
-0.829427 -0.315692 -0.559639
-0.829081 -0.315532 -0.559616
-0.828264 -0.315843 -0.559660
-0.828019 -0.315593 -0.559658
-0.827363 -0.315724 -0.559645
-0.827117 -0.315474 -0.559631
-0.826334 -0.315750 -0.559722
-0.826088 -0.315500 -0.559708
-0.825339 -0.315760 -0.559764
-0.825001 -0.315600 -0.559763
-0.824478 -0.315618 -0.559730
-0.823416 -0.315703 -0.559822
-0.822876 -0.315705 -0.559810
-0.822415 -0.315660 -0.559810
-0.821999 -0.315607 -0.559800
-0.821314 -0.315847 -0.559828
-0.820957 -0.315676 -0.559825
-0.820490 -0.315584 -0.559818
-0.819835 -0.315772 -0.559878
-0.819590 -0.315522 -0.559883
-0.818944 -0.315840 -0.559961
-0.818187 -0.315662 -0.559967
-0.818047 -0.315519 -0.559948
-0.817360 -0.315722 -0.559909
-0.816914 -0.315689 -0.559903
-0.816536 -0.315584 -0.559902
-0.815946 -0.315649 -0.559960
-0.815390 -0.315697 -0.559959
-0.842394 -0.315187 -0.559533
-0.841884 -0.315215 -0.559537
-0.841550 -0.315059 -0.559498
-0.840336 -0.315267 -0.559633
-0.840090 -0.315018 -0.559623
-0.839385 -0.315207 -0.559524
-0.838962 -0.315244 -0.559482
-0.837409 -0.315230 -0.559481
-0.837163 -0.314980 -0.559474
-0.836266 -0.315346 -0.559553
-0.836020 -0.315097 -0.559543
-0.835280 -0.315295 -0.559601
-0.835035 -0.315046 -0.559608
-0.834298 -0.315284 -0.559709
-0.834052 -0.315034 -0.559694
-0.833334 -0.315283 -0.559697
-0.833053 -0.314997 -0.559673
-0.832266 -0.315311 -0.559648
-0.832021 -0.315061 -0.559651
-0.831209 -0.315401 -0.559712
-0.830963 -0.315151 -0.559700
-0.830394 -0.315179 -0.559644
-0.830148 -0.314929 -0.559640
-0.829381 -0.315262 -0.559668
-0.828936 -0.315193 -0.559629
-0.828591 -0.315033 -0.559615
-0.827773 -0.315344 -0.559666
-0.827528 -0.315094 -0.559658
-0.826872 -0.315224 -0.559627
-0.826627 -0.314975 -0.559632
-0.825842 -0.315251 -0.559648
-0.825596 -0.315001 -0.559630
-0.824849 -0.315261 -0.559767
-0.824511 -0.315100 -0.559749
-0.823988 -0.315119 -0.559724
-0.822925 -0.315204 -0.559825
-0.822386 -0.315206 -0.559826
-0.821925 -0.315160 -0.559824
-0.821508 -0.315108 -0.559807
-0.820789 -0.315312 -0.559842
-0.820424 -0.315171 -0.559839
-0.820000 -0.315084 -0.559825
-0.819345 -0.315272 -0.559893
-0.819100 -0.315022 -0.559903
-0.817913 -0.315187 -0.559922
-0.817555 -0.315021 -0.559872
-0.816869 -0.315222 -0.559906
-0.816424 -0.315189 -0.559908
-0.816046 -0.315084 -0.559919
-0.815596 -0.315292 -0.559964
-0.842917 -0.314566 -0.559482
-0.841903 -0.314688 -0.559547
-0.841392 -0.314716 -0.559491
-0.841059 -0.314559 -0.559482
-0.839845 -0.314768 -0.559618
-0.839599 -0.314519 -0.559609
-0.838894 -0.314708 -0.559491
-0.838649 -0.314458 -0.559495
-0.836918 -0.314731 -0.559478
-0.836673 -0.314481 -0.559479
-0.835775 -0.314847 -0.559533
-0.835529 -0.314598 -0.559533
-0.834789 -0.314796 -0.559622
-0.834545 -0.314546 -0.559645
-0.833807 -0.314785 -0.559673
-0.833561 -0.314535 -0.559652
-0.832807 -0.314748 -0.559663
-0.832562 -0.314498 -0.559660
-0.831776 -0.314811 -0.559645
-0.831530 -0.314562 -0.559629
-0.830718 -0.314902 -0.559679
-0.830472 -0.314652 -0.559672
-0.829903 -0.314679 -0.559640
-0.829657 -0.314430 -0.559642
-0.828890 -0.314763 -0.559648
-0.828445 -0.314693 -0.559622
-0.828100 -0.314533 -0.559605
-0.827282 -0.314844 -0.559645
-0.827037 -0.314595 -0.559653
-0.826381 -0.314725 -0.559612
-0.826135 -0.314476 -0.559548
-0.825352 -0.314751 -0.559693
-0.825108 -0.314501 -0.559741
-0.824323 -0.314726 -0.559744
-0.823966 -0.314607 -0.559737
-0.823497 -0.314619 -0.559734
-0.822400 -0.314669 -0.559819
-0.821748 -0.314832 -0.559828
-0.821434 -0.314661 -0.559815
-0.821018 -0.314608 -0.559803
-0.820299 -0.314812 -0.559850
-0.819934 -0.314671 -0.559840
-0.819509 -0.314584 -0.559826
-0.818855 -0.314772 -0.559906
-0.818610 -0.314523 -0.559901
-0.817858 -0.314734 -0.559943
-0.817370 -0.314714 -0.559876
-0.817064 -0.314521 -0.559860
-0.816379 -0.314722 -0.559916
-0.815934 -0.314689 -0.559927
-0.815556 -0.314584 -0.559937
-0.843323 -0.314125 -0.559490
-0.842742 -0.314388 -0.559499
-0.842531 -0.314174 -0.559493
-0.841411 -0.314189 -0.559488
-0.840813 -0.314310 -0.559483
-0.840568 -0.314060 -0.559476
-0.839354 -0.314269 -0.559598
-0.839108 -0.314020 -0.559591
-0.838404 -0.314208 -0.559501
-0.838158 -0.313959 -0.559509
-0.836392 -0.314196 -0.559480
-0.835284 -0.314348 -0.559544
-0.835039 -0.314098 -0.559567
-0.834299 -0.314297 -0.559654
-0.834054 -0.314047 -0.559639
-0.833315 -0.314286 -0.559635
-0.833070 -0.314036 -0.559621
-0.832317 -0.314249 -0.559658
-0.832071 -0.313999 -0.559651
-0.831285 -0.314312 -0.559618
-0.831039 -0.314063 -0.559616
-0.830227 -0.314402 -0.559675
-0.829982 -0.314153 -0.559677
-0.829412 -0.314180 -0.559643
-0.829167 -0.313931 -0.559637
-0.828364 -0.314228 -0.559634
-0.827907 -0.314223 -0.559608
-0.827609 -0.314034 -0.559600
-0.826792 -0.314345 -0.559656
-0.826547 -0.314095 -0.559644
-0.825889 -0.314227 -0.559505
-0.825644 -0.313977 -0.559552
-0.824827 -0.314216 -0.559742
-0.824582 -0.313966 -0.559746
-0.823832 -0.314226 -0.559759
-0.823402 -0.314155 -0.559758
-0.822972 -0.314084 -0.559743
-0.821909 -0.314169 -0.559824
-0.821258 -0.314333 -0.559817
-0.820944 -0.314162 -0.559815
-0.820527 -0.314109 -0.559808
-0.819808 -0.314313 -0.559861
-0.819444 -0.314171 -0.559852
-0.819019 -0.314085 -0.559846
-0.818329 -0.314237 -0.559897
-0.818084 -0.313987 -0.559900
-0.817368 -0.314235 -0.559940
-0.816880 -0.314214 -0.559882
-0.816574 -0.314021 -0.559882
-0.815889 -0.314222 -0.559922
-0.815445 -0.314190 -0.559938
-0.815102 -0.314120 -0.559958
-0.843229 -0.313549 -0.559468
-0.842935 -0.313669 -0.559501
-0.838863 -0.313770 -0.559585
-0.838617 -0.313520 -0.559576
-0.837913 -0.313709 -0.559505
-0.837667 -0.313460 -0.559492
-0.835902 -0.313697 -0.559482
-0.834759 -0.313813 -0.559583
-0.834514 -0.313563 -0.559579
-0.833808 -0.313797 -0.559621
-0.833563 -0.313548 -0.559615
-0.832789 -0.313751 -0.559605
-0.832543 -0.313501 -0.559593
-0.831825 -0.313749 -0.559639
-0.831580 -0.313500 -0.559634
-0.830794 -0.313813 -0.559615
-0.830548 -0.313563 -0.559614
-0.829736 -0.313903 -0.559674
-0.829491 -0.313653 -0.559675
-0.828921 -0.313681 -0.559628
-0.828676 -0.313431 -0.559628
-0.827873 -0.313729 -0.559633
-0.827379 -0.313704 -0.559601
-0.827083 -0.313499 -0.559590
-0.826301 -0.313846 -0.559639
-0.826056 -0.313596 -0.559643
-0.825365 -0.313691 -0.559634
-0.825121 -0.313441 -0.559658
-0.824337 -0.313716 -0.559759
-0.824092 -0.313466 -0.559764
-0.823342 -0.313727 -0.559772
-0.822912 -0.313656 -0.559753
-0.822482 -0.313585 -0.559753
-0.821419 -0.313670 -0.559825
-0.820767 -0.313833 -0.559815
-0.820453 -0.313662 -0.559805
-0.820037 -0.313609 -0.559806
-0.819318 -0.313813 -0.559855
-0.818953 -0.313672 -0.559849
-0.818529 -0.313585 -0.559834
-0.817839 -0.313738 -0.559886
-0.817593 -0.313488 -0.559868
-0.816877 -0.313735 -0.559935
-0.816390 -0.313714 -0.559902
-0.816084 -0.313522 -0.559890
-0.815364 -0.313687 -0.559931
-0.815119 -0.313437 -0.559938
-0.843054 -0.313371 -0.559473
-0.842622 -0.313412 -0.559478
-0.838372 -0.313271 -0.559572
-0.838126 -0.313021 -0.559567
-0.837422 -0.313210 -0.559479
-0.837176 -0.312960 -0.559477
-0.835411 -0.313197 -0.559497
-0.834268 -0.313314 -0.559567
-0.834023 -0.313064 -0.559554
-0.833317 -0.313298 -0.559603
-0.833071 -0.313049 -0.559590
-0.832298 -0.313252 -0.559589
-0.832053 -0.313002 -0.559589
-0.831335 -0.313250 -0.559643
-0.831090 -0.313001 -0.559649
-0.830303 -0.313314 -0.559610
-0.830058 -0.313064 -0.559604
-0.829246 -0.313404 -0.559672
-0.829000 -0.313154 -0.559662
-0.828395 -0.313146 -0.559626
-0.827382 -0.313230 -0.559597
-0.826888 -0.313205 -0.559588
-0.826593 -0.313000 -0.559591
-0.825810 -0.313346 -0.559638
-0.825565 -0.313097 -0.559630
-0.824875 -0.313191 -0.559663
-0.824630 -0.312941 -0.559663
-0.823846 -0.313217 -0.559751
-0.823601 -0.312967 -0.559745
-0.822851 -0.313227 -0.559751
-0.822421 -0.313156 -0.559754
-0.821991 -0.313085 -0.559749
-0.820928 -0.313170 -0.559810
-0.820276 -0.313334 -0.559795
-0.819928 -0.313174 -0.559805
-0.819511 -0.313074 -0.559796
-0.818828 -0.313313 -0.559860
-0.818463 -0.313172 -0.559846
-0.818038 -0.313086 -0.559823
-0.817348 -0.313238 -0.559869
-0.817103 -0.312988 -0.559882
-0.816387 -0.313235 -0.559950
-0.815900 -0.313215 -0.559896
-0.815594 -0.313022 -0.559877
-0.814874 -0.313187 -0.559952
-0.837881 -0.312772 -0.559553
-0.837635 -0.312522 -0.559542
-0.836896 -0.312675 -0.559487
-0.834921 -0.312698 -0.559510
-0.833777 -0.312814 -0.559542
-0.833532 -0.312565 -0.559530
-0.832791 -0.312764 -0.559589
-0.832546 -0.312514 -0.559591
-0.831807 -0.312752 -0.559589
-0.831562 -0.312503 -0.559588
-0.830844 -0.312751 -0.559643
-0.830599 -0.312501 -0.559637
-0.829812 -0.312814 -0.559601
-0.829567 -0.312565 -0.559610
-0.828720 -0.312869 -0.559658
-0.828475 -0.312619 -0.559659
-0.827904 -0.312647 -0.559606
-0.826891 -0.312731 -0.559597
-0.826397 -0.312705 -0.559585
-0.826102 -0.312501 -0.559568
-0.825320 -0.312847 -0.559632
-0.825075 -0.312597 -0.559640
-0.824385 -0.312692 -0.559645
-0.824139 -0.312442 -0.559632
-0.823356 -0.312718 -0.559751
-0.823111 -0.312468 -0.559758
-0.822361 -0.312728 -0.559759
-0.821931 -0.312657 -0.559750
-0.821500 -0.312586 -0.559742
-0.820438 -0.312671 -0.559811
-0.819751 -0.312798 -0.559826
-0.819403 -0.312667 -0.559809
-0.819021 -0.312575 -0.559792
-0.818337 -0.312814 -0.559857
-0.817925 -0.312682 -0.559839
-0.817512 -0.312551 -0.559812
-0.816858 -0.312739 -0.559886
-0.816613 -0.312489 -0.559883
-0.815897 -0.312736 -0.559961
-0.815410 -0.312715 -0.559910
-0.815105 -0.312522 -0.559936
-0.837390 -0.312273 -0.559545
-0.837145 -0.312023 -0.559548
-0.836406 -0.312176 -0.559497
-0.834430 -0.312199 -0.559504
-0.833286 -0.312315 -0.559523
-0.833041 -0.312066 -0.559525
-0.832300 -0.312264 -0.559586
-0.832055 -0.312015 -0.559586
-0.831317 -0.312253 -0.559587
-0.831071 -0.312003 -0.559588
-0.830353 -0.312252 -0.559633
-0.830108 -0.312002 -0.559640
-0.829287 -0.312279 -0.559619
-0.829041 -0.312030 -0.559615
-0.828229 -0.312370 -0.559651
-0.827984 -0.312120 -0.559644
-0.827413 -0.312148 -0.559571
-0.826401 -0.312231 -0.559593
-0.825906 -0.312206 -0.559567
-0.825611 -0.312001 -0.559563
-0.824794 -0.312312 -0.559648
-0.824549 -0.312062 -0.559650
-0.823894 -0.312192 -0.559638
-0.823649 -0.311943 -0.559644
-0.822865 -0.312218 -0.559759
-0.822620 -0.311968 -0.559756
-0.821870 -0.312228 -0.559751
-0.821440 -0.312157 -0.559751
-0.821011 -0.312086 -0.559785
-0.819948 -0.312171 -0.559832
-0.819260 -0.312299 -0.559801
-0.818913 -0.312167 -0.559801
-0.818531 -0.312075 -0.559806
-0.817847 -0.312314 -0.559860
-0.817434 -0.312183 -0.559830
-0.817022 -0.312051 -0.559811
-0.816367 -0.312239 -0.559883
-0.816122 -0.311989 -0.559891
-0.815477 -0.312307 -0.559963
-0.814930 -0.312343 -0.559962
-0.836864 -0.311738 -0.559546
-0.836619 -0.311488 -0.559541
-0.835915 -0.311677 -0.559487
-0.833939 -0.311700 -0.559490
-0.832796 -0.311816 -0.559532
-0.832550 -0.311566 -0.559533
-0.831810 -0.311765 -0.559587
-0.831564 -0.311515 -0.559584
-0.830826 -0.311754 -0.559586
-0.830581 -0.311504 -0.559582
-0.829828 -0.311717 -0.559648
-0.829582 -0.311467 -0.559646
-0.828796 -0.311780 -0.559609
-0.828551 -0.311531 -0.559602
-0.827738 -0.311870 -0.559648
-0.827493 -0.311621 -0.559648
-0.826922 -0.311649 -0.559564
-0.825911 -0.311732 -0.559615
-0.825416 -0.311707 -0.559581
-0.825121 -0.311502 -0.559569
-0.824304 -0.311813 -0.559651
-0.824059 -0.311563 -0.559653
-0.823403 -0.311693 -0.559642
-0.823158 -0.311443 -0.559635
-0.822375 -0.311719 -0.559746
-0.822129 -0.311469 -0.559739
-0.821380 -0.311729 -0.559748
-0.820950 -0.311658 -0.559780
-0.820521 -0.311586 -0.559814
-0.819457 -0.311672 -0.559827
-0.818770 -0.311799 -0.559828
-0.818423 -0.311668 -0.559834
-0.818040 -0.311576 -0.559818
-0.817321 -0.311779 -0.559848
-0.816897 -0.311693 -0.559834
-0.816532 -0.311551 -0.559822
-0.815878 -0.311739 -0.559909
-0.815633 -0.311489 -0.559930
-0.836373 -0.311238 -0.559540
-0.836128 -0.310989 -0.559542
-0.835424 -0.311177 -0.559486
-0.833448 -0.311200 -0.559489
-0.832305 -0.311317 -0.559529
-0.832060 -0.311067 -0.559531
-0.831319 -0.311266 -0.559574
-0.831073 -0.311016 -0.559563
-0.830335 -0.311255 -0.559580
-0.830090 -0.311005 -0.559581
-0.829337 -0.311217 -0.559642
-0.829092 -0.310968 -0.559642
-0.828305 -0.311281 -0.559597
-0.828060 -0.311031 -0.559591
-0.827248 -0.311371 -0.559642
-0.827002 -0.311121 -0.559647
-0.826432 -0.311149 -0.559596
-0.825421 -0.311232 -0.559660
-0.824925 -0.311207 -0.559594
-0.824631 -0.311002 -0.559629
-0.823813 -0.311313 -0.559654
-0.823568 -0.311064 -0.559650
-0.822912 -0.311194 -0.559627
-0.822667 -0.310944 -0.559624
-0.821884 -0.311220 -0.559741
-0.821639 -0.310970 -0.559750
-0.820889 -0.311230 -0.559753
-0.820460 -0.311158 -0.559784
-0.820030 -0.311087 -0.559818
-0.818967 -0.311172 -0.559827
-0.818281 -0.311300 -0.559858
-0.817932 -0.311168 -0.559838
-0.817550 -0.311076 -0.559805
-0.816831 -0.311279 -0.559882
-0.816407 -0.311193 -0.559854
-0.816042 -0.311052 -0.559849
-0.815388 -0.311239 -0.559940
-0.815143 -0.310990 -0.559938
-0.835883 -0.310739 -0.559545
-0.835637 -0.310490 -0.559552
-0.834934 -0.310678 -0.559503
-0.832958 -0.310701 -0.559495
-0.831814 -0.310817 -0.559532
-0.831569 -0.310568 -0.559525
-0.830828 -0.310767 -0.559558
-0.830582 -0.310517 -0.559557
-0.829845 -0.310755 -0.559587
-0.829599 -0.310506 -0.559594
-0.828846 -0.310718 -0.559639
-0.828601 -0.310469 -0.559630
-0.827814 -0.310782 -0.559580
-0.827569 -0.310532 -0.559579
-0.826757 -0.310872 -0.559661
-0.826512 -0.310622 -0.559671
-0.825942 -0.310650 -0.559620
-0.824895 -0.310697 -0.559677
-0.824386 -0.310752 -0.559666
-0.824141 -0.310503 -0.559649
-0.823323 -0.310814 -0.559648
-0.823077 -0.310564 -0.559649
-0.822422 -0.310694 -0.559629
-0.822177 -0.310445 -0.559632
-0.821359 -0.310684 -0.559758
-0.821113 -0.310435 -0.559761
-0.820364 -0.310694 -0.559754
-0.819842 -0.310712 -0.559808
-0.819505 -0.310552 -0.559830
-0.818686 -0.310887 -0.559828
-0.818441 -0.310637 -0.559825
-0.817790 -0.310800 -0.559856
-0.817442 -0.310669 -0.559840
-0.817059 -0.310577 -0.559813
-0.816341 -0.310780 -0.559880
-0.815917 -0.310693 -0.559870
-0.815552 -0.310552 -0.559870
-0.814863 -0.310704 -0.559948
-0.814618 -0.310454 -0.559965
-0.835392 -0.310240 -0.559557
-0.835147 -0.309990 -0.559554
-0.834443 -0.310179 -0.559496
-0.832467 -0.310202 -0.559491
-0.831288 -0.310282 -0.559523
-0.831043 -0.310033 -0.559523
-0.830337 -0.310267 -0.559565
-0.830092 -0.310018 -0.559577
-0.829354 -0.310256 -0.559593
-0.829109 -0.310006 -0.559588
-0.828355 -0.310219 -0.559620
-0.828110 -0.309969 -0.559616
-0.827324 -0.310282 -0.559590
-0.827078 -0.310033 -0.559597
-0.826267 -0.310372 -0.559681
-0.826022 -0.310123 -0.559685
-0.825451 -0.310150 -0.559615
-0.824405 -0.310198 -0.559682
-0.823860 -0.310218 -0.559619
-0.823614 -0.309968 -0.559606
-0.822832 -0.310315 -0.559649
-0.822587 -0.310065 -0.559647
-0.821896 -0.310159 -0.559631
-0.820868 -0.310185 -0.559764
-0.820623 -0.309935 -0.559768
-0.819873 -0.310195 -0.559760
-0.819352 -0.310213 -0.559814
-0.819015 -0.310052 -0.559827
-0.818196 -0.310387 -0.559825
-0.817951 -0.310138 -0.559830
-0.817300 -0.310301 -0.559880
-0.816952 -0.310169 -0.559854
-0.816569 -0.310077 -0.559815
-0.815851 -0.310280 -0.559897
-0.815427 -0.310193 -0.559905
-0.815063 -0.310052 -0.559911
-0.814127 -0.309955 -0.559967
-0.834901 -0.309741 -0.559545
-0.834656 -0.309491 -0.559540
-0.833952 -0.309680 -0.559477
-0.832186 -0.309917 -0.559471
-0.831871 -0.309596 -0.559471
-0.830798 -0.309783 -0.559522
-0.830552 -0.309534 -0.559522
-0.829847 -0.309768 -0.559581
-0.829601 -0.309518 -0.559578
-0.828828 -0.309721 -0.559581
-0.828583 -0.309472 -0.559572
-0.827865 -0.309720 -0.559613
-0.827619 -0.309470 -0.559609
-0.826833 -0.309783 -0.559597
-0.826588 -0.309534 -0.559597
-0.825777 -0.309873 -0.559684
-0.825531 -0.309623 -0.559684
-0.824961 -0.309651 -0.559635
-0.823914 -0.309699 -0.559655
-0.823369 -0.309718 -0.559595
-0.823123 -0.309469 -0.559583
-0.822341 -0.309815 -0.559643
-0.822096 -0.309566 -0.559641
-0.821406 -0.309660 -0.559633
-0.820378 -0.309686 -0.559767
-0.820132 -0.309436 -0.559770
-0.819383 -0.309696 -0.559765
-0.818861 -0.309713 -0.559808
-0.818524 -0.309553 -0.559822
-0.817706 -0.309888 -0.559837
-0.817461 -0.309638 -0.559856
-0.816810 -0.309801 -0.559897
-0.816427 -0.309671 -0.559894
-0.816044 -0.309542 -0.559843
-0.815362 -0.309780 -0.559961
-0.814937 -0.309693 -0.559939
-0.814572 -0.309552 -0.559908
-0.813917 -0.309741 -0.559955
-0.836436 -0.309125 -0.559612
-0.834410 -0.309242 -0.559539
-0.834165 -0.308992 -0.559541
-0.833461 -0.309180 -0.559489
-0.831696 -0.309417 -0.559475
-0.831450 -0.309168 -0.559472
-0.830307 -0.309284 -0.559524
-0.830062 -0.309034 -0.559517
-0.829321 -0.309233 -0.559571
-0.829075 -0.308984 -0.559560
-0.828337 -0.309222 -0.559564
-0.828092 -0.308972 -0.559562
-0.827374 -0.309221 -0.559613
-0.827129 -0.308971 -0.559622
-0.826342 -0.309284 -0.559596
-0.826097 -0.309034 -0.559586
-0.825251 -0.309338 -0.559678
-0.824940 -0.309144 -0.559654
-0.824435 -0.309116 -0.559619
-0.823423 -0.309200 -0.559629
-0.822878 -0.309219 -0.559573
-0.822632 -0.308970 -0.559563
-0.821851 -0.309316 -0.559640
-0.821605 -0.309066 -0.559637
-0.820915 -0.309161 -0.559632
-0.819887 -0.309186 -0.559774
-0.819642 -0.308936 -0.559777
